0.0489782743 0.8421623707 1.8537298173
-0.6213928873 -0.1792517463 1.3563091626
-0.6211379411 -0.1858024817 1.3482678240
-0.5954358352 -0.1503708518 1.4363530343
0.0449919925 0.8274370021 1.8359728838
-0.6076219556 -0.1777240687 1.3826270675
-0.6287025866 -0.2286217678 1.3061511083
0.0515534320 0.8201799651 1.8605623669
0.0184482105 0.7629424857 1.8078059612
-0.0580371781 0.6391258149 1.7440727509
0.0361188390 0.7824675923 1.8294117949
-0.6274939368 -0.2632597519 1.3034624026
0.0559627741 0.8137990117 1.8574542809
-0.4379452201 0.0286626283 1.8886821010
-0.6092441730 -0.2392421004 1.3682015154
-0.6002337736 -0.2364709639 1.4005305624
-0.5423711636 -0.1614756692 1.5863849164
-0.4604161252 -0.0407214518 1.8256272214
-0.5568969850 -0.2037843723 1.5196372846
-0.5839410515 -0.2471506720 1.4451372545
0.0318669803 0.7496375665 1.8378240447
-0.5122951334 -0.1385252434 1.6587857425
0.0719125841 0.8083533088 1.8722789536
-0.5185668214 -0.1602637625 1.6540868347
-0.5346954536 -0.1875237167 1.5709777693
0.0352396333 0.7441169819 1.8192205007
-0.5814183091 -0.2678047013 1.4285166768
0.0064803815 0.6817350473 1.7381473022
-0.5310494454 -0.2273323158 1.5987264892
-0.5145995213 -0.2132331493 1.6485774185
-0.5515848707 -0.2772266582 1.5111630648
-0.5509870172 -0.2972305286 1.5203919998
0.0167341737 0.6720520961 1.7530295761
-0.5713524721 -0.3397491623 1.4404176667
-0.5713524721 -0.3397491623 1.4404176667
0.0358160787 0.6912508880 1.7927368953
-0.5052161973 -0.2663629039 1.6695363755
0.0309902979 0.6698610341 1.7770509062
-0.5586880129 -0.3856471953 1.4791707598
-0.5986596780 -0.4480339502 1.3446512041
-0.3201380158 0.0246529738 1.7008000838
-0.3201380158 0.0246529738 1.7008000838
-0.5938325248 -0.4406105468 1.3691744163
0.0394510500 0.6700521062 1.7767133379
-0.2830051526 0.0459578078 1.7588965152
-0.5163233423 -0.3753688216 1.5956130554
-0.5769069627 -0.4700649642 1.4164311874
-0.4747824430 -0.3194086184 1.7455534791
-0.5257582231 -0.3983531023 1.5286425464
-0.2856516260 0.0227933048 1.7578579031
0.0506769463 0.6622343375 1.7546644180
-0.5320597205 -0.4253628998 1.5277888645
-0.5872733960 -0.5441523456 1.3661092454
-0.5508564221 -0.5135413617 1.4642011233
-0.4832521148 -0.4688100838 1.6983570479
-0.4569254229 -0.4260398847 1.7522694400
-0.5951038826 -0.6470176841 1.3178253075
-0.2276254519 0.0229469745 1.7238996838
-0.5653002255 -0.6278651157 1.4138900099
-0.4844690858 -0.5145378731 1.6921183663
-0.4694424168 -0.5172392570 1.7166665983
-0.4993200894 -0.5710642222 1.6350175970
-0.5473798844 -0.6507800596 1.4603914840
0.0679827172 0.5829294527 1.8034489466
-0.5627776514 -0.6839774841 1.4158200717
-0.5571345822 -0.7131710289 1.4229820889
-0.4469236884 -0.5903185722 1.7897334942
-0.4469236884 -0.5903185722 1.7897334942
0.0208850279 0.4357574887 1.7804617746
0.0208850279 0.4357574887 1.7804617746
0.0973229747 0.5908041316 1.8306276240
0.0899975957 0.4335716132 1.9318142090
0.0898152264 0.3475543641 1.9407186926
0.0704103991 0.2879348016 1.8737474902
0.0704103991 0.2879348016 1.8737474902
0.1124244577 0.3576149439 1.9669677821
0.1113003253 0.3406205110 1.9596183259
0.1049208867 0.2973189073 1.9378269109
0.0701731412 0.2520004162 1.8097764488
-0.4690466084 -1.2099690436 1.5724031250
-0.4690466084 -1.2099690436 1.5724031250
0.1525893159 0.3434203347 2.0307220406
0.0980105872 0.2411366665 1.8550561294
0.1500608227 0.2778149025 2.0228819062
0.1859531347 0.3342749365 2.0755259204
0.0903164294 0.1275706237 1.7932890760
0.1606189093 0.2213267351 2.0076400872
0.0943861852 0.1182525218 1.7865602580
0.1689945810 0.2184482944 2.0206860492
0.1418582745 0.1849872509 1.8165421540
0.1617840829 0.1853641738 1.8237498030
-0.3140777891 -1.7337949509 1.9603004486
0.1902057411 0.1896116218 1.8446877933
0.2029857714 0.1495020542 1.8136806689
0.2144916532 0.1832079706 1.8290027413
0.2125997088 0.1820016437 1.8190834934
0.2716485475 -0.1515865199 2.1498034835
-0.1734620189 -3.2477489122 2.1146081481
-0.1734620189 -3.2477489122 2.1146081481
0.3226826557 0.1282999585 1.7714633693
0.3226826557 0.1282999585 1.7714633693
-0.3478691909 -5.6023537804 1.5018075685
-0.1274967617 -5.4118610852 2.2144393613
-0.2475689259 -5.4043422938 1.7656646775
-0.0032238816 -5.4697474383 2.4593315526
0.3835214357 0.0223894970 1.7337848703
0.3879010670 0.0260002734 1.7492693958
0.4995353558 -0.7357241061 2.3120386272
0.4975811899 -0.7193093589 2.3025437741
0.2743375281 -7.2784321580 2.8655135270
0.4003160962 0.0172895677 1.7036416857
0.3178677838 -7.3699895420 2.8373771824
0.3901579025 -7.8111296728 2.9366662018
0.2469351925 -8.3889585710 2.4107448768
0.3107203271 -8.3329144800 2.5350093735
0.4367345568 -8.1025276410 2.6361253140
0.4367345568 -8.1025276410 2.6361253140
0.3794692968 -7.7696443375 2.3511458343
0.2230512833 -11.2779756183 2.1469297682
0.6707504531 -10.5264842260 3.2759219742
0.6707504531 -10.5264842260 3.2759219742
0.7481076609 -0.2555591153 2.6497779080
0.2650216693 -10.2119852439 1.9471252993
0.4998635239 -9.3130805409 2.6355398701
0.1804744708 -10.2613992021 1.6746682992
0.6209103531 -9.5977567287 2.9660288761
0.2251401688 -10.6794798387 1.8317081931
0.7390732624 -10.5726996721 3.3745330908
0.7387875045 -10.5250799287 3.3659862178
0.6072734924 -9.5910491560 2.7889624221
0.5692409932 -8.7064927109 2.6230430008
0.2946532957 -10.7364048365 1.8857484160
0.2665045717 -11.5275626044 1.7899456519
0.7380802616 -0.2844306547 2.5683316167
0.3987551382 -12.1749864361 2.1448205468
0.5244087371 -10.9797992680 2.4056053506
0.7641133087 -0.2744079455 2.5846192625
0.3985918108 -11.8144638589 1.8395947319
1.0040580433 -7.4328728559 3.5458247566
0.7555040238 -8.8457412609 2.6851917813
1.6373532109 -5.8846858651 5.2578587258
1.3126803998 -6.9910962451 4.2134473985
1.3126803998 -6.9910962451 4.2134473985
0.5775114449 -10.5755244856 1.9173878593
0.7894293902 -0.2911713774 2.5866407629
1.4426024706 -6.5810192496 4.4817662020
1.2633668578 -7.4089512520 3.8357632892
0.5023137199 -10.7189494163 1.5027005502
0.8192526564 -0.2705553814 2.6239477622
0.4960061659 -10.6084218846 1.4047983047
0.7917270429 -0.3334048230 2.5275894663
0.6394774619 -11.0260070219 1.5286815470
1.2650400135 -7.7111432188 3.5377958968
0.6114361261 -10.5691101578 1.4520476170
1.5233764981 -7.0348108717 4.2628031834
1.3786940435 -3.5483051355 3.9917211977
1.4605297440 -7.1701122919 3.9761606540
1.4630229952 -7.2415312898 3.9258681992
0.6644824418 -9.2082834629 1.3822133037
0.9558619586 -8.0363902909 2.2115660588
0.7658334885 -10.1397898363 1.4905363389
0.7658334885 -10.1397898363 1.4905363389
1.6033857640 -6.8027477900 4.1073273065
1.0802608734 -11.3806329449 2.0736147720
0.8473133174 -0.3069584165 2.5158038171
1.0568365546 -11.0130255456 1.6741757292
1.6097968232 -8.6886843635 3.4394395757
0.8992174810 -0.2920090353 2.5501077485
0.9551107157 -1.6179305440 2.4842528257
0.9551107157 -1.6179305440 2.4842528257
0.8787015344 -0.3583134387 2.4692695074
1.7604739960 -7.2937979100 3.7239954159
1.7713435474 -10.0424953181 3.1427722833
1.7875689202 -7.1457825734 3.6650195058
0.9067432011 -0.3896177777 2.4449054384
0.9049995576 -0.3858448283 2.4420459942
1.4890134273 -9.0887751009 2.3400114645
0.9050031057 -0.4137317080 2.4245897860
0.9360228488 -0.2986511223 2.5023238499
1.8920481660 -9.3257024732 3.0983624116
0.9189408761 -0.3926240153 2.4270476280
0.9204903093 -0.4011792161 2.4140563086
1.6293705781 -8.8013707530 2.4343343159
1.6220583600 -9.0407105867 2.2753874585
1.5608472013 -9.1082040978 2.1028818936
2.0721753306 -6.9194527004 3.8261111711
1.7815109625 -10.2986959497 2.1589621508
0.9469550324 -0.3554503498 2.4264457554
0.9733115175 -0.3060338523 2.5018005385
0.9519284709 -0.3984449920 2.4258501349
2.0496358747 -6.7845359369 3.6981950882
1.7864813656 -8.8852631306 2.3846549437
1.4090416667 -3.6771998503 2.7218179616
2.0694057158 -8.3810542846 3.1715082447
3.2145383505 -12.0000348600 5.1810065843
2.0187181121 -7.6035254501 3.1820914340
0.9742005582 -0.4329478721 2.4128065387
2.4594781298 -5.6781839782 4.8177895635
0.9747167579 -0.3814582738 2.4240956923
2.4594221583 -5.6727612014 4.8143868050
2.4594221583 -5.6727612014 4.8143868050
2.2277102867 -7.1414206324 3.7754778932
2.0904658728 -8.3297773780 3.0586990670
2.1369242349 -6.9640312379 3.5529886817
1.0225783606 -0.2849896895 2.5508823811
1.9814214590 -8.8497779688 2.6383012927
2.0685305836 -8.8540236663 2.8218783882
2.1145965224 -8.1937519218 3.1387157315
2.1209365678 -8.4398092220 3.0229433381
2.1559050989 -8.1854979179 3.1545942099
3.3432218468 -11.8241196095 5.0799015841
2.1933826330 -8.4803058581 3.0847415496
1.0065088447 -0.4176122333 2.4203284618
-0.3149258070 3.6070231795 0.2649510548
1.0331044741 -0.2922683516 2.5215820652
1.0345017205 -0.3087858382 2.5002045967
1.7106329445 -2.4923478048 3.5206122819
2.2798540175 -8.3053478992 3.1390210136
2.1729514854 -8.8270651147 2.7017329225
1.0482360493 -0.2926988597 2.5214382950
2.8384705827 -6.4071340843 5.0658741674
1.1583475146 -1.5190766569 2.3623557927
2.1374581941 -6.6579137294 3.0989399875
2.1374581941 -6.6579137294 3.0989399875
2.3821197800 -7.6072658649 3.2979892250
2.3623816629 -7.2192457256 3.3713901981
2.3071945266 -9.0174213039 2.6032981629
1.0785332503 -0.3158000958 2.4911029507
1.0908884379 -0.3080555316 2.5137254654
1.0918636819 -0.3229381287 2.4828798739
2.4306801651 -9.4227421703 2.3010882977
1.1005610108 -0.4662384893 2.3787808444
2.5522992531 -7.4137507366 3.0739398759
2.6203372758 -8.9495237546 2.3140022119
1.1454011864 -0.3328898067 2.4396227684
2.7266460247 -8.6665908648 2.5754440645
1.1377001114 -0.3679322290 2.3822356902
1.1408498628 -0.4275564810 2.3523451590
1.1604825965 -0.3394943538 2.4267088760
1.1532112678 -0.4477189396 2.3503852164
1.4042840324 -1.5497075364 2.4294295715
1.3944154945 -1.5151741562 2.4180399370
2.9580580916 -7.7351830194 3.1622390161
2.9580580916 -7.7351830194 3.1622390161
1.1659126073 -0.3937246031 2.3570298964
1.4114132093 -1.5575698712 2.3780428628
1.1902841813 -0.4941781037 2.3488572923
1.1752806926 -0.4160885360 2.3366181345
2.7432372278 -9.4783510005 1.6470319171
1.1903652820 -0.3628982559 2.3901590314
1.3912253668 -1.5776774912 2.2799166238
1.4410385281 -1.5515864655 2.3479488350
1.4557409074 -1.5570754204 2.3246061635
1.4796954050 -1.5733715971 2.3612109245
1.4796008645 -1.5613839967 2.3224540437
1.4688098420 -1.5961529758 2.2740928359
1.1965747184 -0.9629786184 1.9575010970
1.5024261752 -1.6368707813 2.2590271879
1.4705037439 -1.6326748094 2.1658475423
-0.5596827427 -0.6050353899 1.5777250618
-0.5984311937 -0.4323766624 1.4364803810
-0.5737222910 -0.5282078593 1.5119624286
-0.5728464809 -0.5188869286 1.5136649446
-0.5897279797 -0.4503368297 1.4665358714
-0.6071048319 -0.3710512733 1.4066462320
-0.5738637914 -0.4932140796 1.5122645628
-0.5580547716 -0.5359433413 1.5577829105
-0.5769915266 -0.4535009513 1.4992630264
-0.5992686314 -0.3708913362 1.4411426126
-0.5552444460 -0.5371306214 1.5674210096
-0.5279162637 -0.6532672156 1.6641339924
-0.5434091556 -0.5890163220 1.6135228985
-0.5798478614 -0.4325323993 1.4927423525
-0.5534947294 -0.5248547234 1.5603234206
-0.5430598082 -0.5821384036 1.6156503459
-0.5831874199 -0.4081197194 1.4747252777
-0.5751586830 -0.4451189854 1.5141112642
-0.5944800392 -0.3630127034 1.4623213674
-0.6033176298 -0.3303264387 1.4364316215
-0.6188317774 -0.2649064727 1.3841854903
-0.5689232881 -0.4514847973 1.5376205502
-0.6029394158 -0.3145408525 1.4323125433
-0.6149631636 -0.2558792556 1.3934545146
-0.5287852834 -0.5832786037 1.6477514230
-0.5380665951 -0.5640830586 1.6496705025
-0.6255026451 -0.2077597333 1.3723290817
-0.6255026451 -0.2077597333 1.3723290817
-0.6223285860 -0.2149683529 1.3777977254
-0.6310477120 -0.1764407762 1.3548296139
-0.4970346884 -0.7128508830 1.7719406950
-0.4970346884 -0.7128508830 1.7719406950
-0.5909806219 -0.3199053213 1.4635160757
-0.5248827041 -0.5927130409 1.6791962317
-0.5654086811 -0.4092866436 1.5264336405
-0.4974278843 -0.6966894098 1.7606825809
-0.6309091084 -0.1647676589 1.3525544001
-0.6162694305 -0.2113839021 1.3999373341
-0.6315254003 -0.1454971769 1.3515544919
-0.5833105568 -0.3248454123 1.4883937970
-0.6024546390 -0.2455214780 1.4360821972
-0.5799126310 -0.3277199080 1.5022689049
-0.6420962087 -0.0910210673 1.3258352015
-0.6409318563 -0.0967842079 1.3327004940
-0.5952948431 -0.2620880121 1.4571452130
-0.5357734181 -0.5037458195 1.6492420572
-0.6095866614 -0.2094468580 1.4307227493
-0.5845846798 -0.2872496932 1.4753799350
-0.6110399637 -0.1929020622 1.4143028193
-0.5265273359 -0.5275862160 1.6761547471
-0.5973266741 -0.2390509166 1.4512981232
-0.5973266741 -0.2390509166 1.4512981232
-0.6410843735 -0.0700676902 1.3282340331
-0.6359491458 -0.0929835770 1.3548296336
-0.6359491458 -0.0929835770 1.3548296336
-0.5254377710 -0.5127056984 1.6698551224
-0.6166808814 -0.1397365352 1.3821625663
-0.6065685367 -0.1936000958 1.4359851086
-0.6576144086 0.0038031165 1.2953890066
-0.6453811449 -0.0408762230 1.3278519178
-0.5681955072 -0.3269458768 1.5408523459
-0.6411743958 -0.0481431059 1.3362164739
-0.6433220862 -0.0464630017 1.3388740251
-0.4987807310 -0.6068871223 1.7696419027
-0.6138274149 -0.1411397647 1.4115612017
-0.6421653723 -0.0296466134 1.3355668094
-0.4682235366 -0.7275831965 1.8778311994
-0.6528403824 0.0230009703 1.3045781527
-0.6098298891 -0.1449111701 1.4324640220
-0.6098318292 -0.1329540488 1.4183269130
-0.6534073549 0.0225295754 1.3171973771
-0.5770306384 -0.2528997950 1.5206582412
-0.6522035941 0.0364054546 1.3101075457
-0.6742996250 0.1260527500 1.2579384053
-0.6308655089 -0.0222114783 1.3572381130
-0.6308655089 -0.0222114783 1.3572381130
-0.6466024231 0.0295671182 1.3262475980
-0.6162375855 -0.0825957307 1.4095699971
-0.6065963840 -0.1115810006 1.4412050099
-0.6544728668 0.0773367314 1.2967857883
-0.6401374082 0.0337293340 1.3480241150
-0.5484983583 -0.3163087001 1.6055334896
-0.4701383023 -0.6335017668 1.8518743521
-0.4829193958 -0.5775406434 1.8099268355
-0.6193507943 -0.0337295727 1.4042476082
-0.5959469588 -0.0988306855 1.4481320680
-0.6602109510 0.1329395123 1.2964297522
-0.6411578231 0.0784055519 1.3396472462
-0.6401405511 0.0772733832 1.3382455349
-0.6429654714 0.0859535270 1.3319289797
-0.5873370615 -0.1316569430 1.5026850900
-0.5873370615 -0.1316569430 1.5026850900
-0.6607182321 0.1485913685 1.2955152730
-0.5880634498 -0.1098070010 1.4831734432
-0.6680255726 0.1804104085 1.2838296091
-0.5843027626 -0.1217674719 1.5084610387
-0.6634689681 0.1858138258 1.2890976446
-0.6472154526 0.1367638217 1.3281609670
-0.6286265580 0.0738655276 1.3728083865
-0.6235253958 0.0582915389 1.3951657286
-0.5902216430 -0.0567809439 1.4911704172
-0.5206699786 -0.3247623131 1.6896202634
-0.5473198084 -0.2107909112 1.6050030192
-0.5154346471 -0.3372717204 1.7006245271
-0.5928778654 -0.0392377430 1.4850326264
-0.5783959045 -0.0892893099 1.5235848072
-0.6202822520 0.0760706327 1.3971905159
-0.6223070781 0.0944877904 1.3862993921
-0.5857152439 -0.0375027823 1.4914160118
-0.6694769308 0.2737676346 1.2805843983
-0.5596997832 -0.1415206950 1.5841182215
-0.6496796700 0.2059017629 1.3289279212
-0.6080188157 0.0701934541 1.4202554094
-0.5530884386 -0.1538734352 1.5991088985
-0.5806634549 -0.0350694023 1.5043428371
-0.5900614201 0.0022011409 1.4848312913
-0.5900614201 0.0022011409 1.4848312913
-0.5872075029 -0.0077791713 1.4916200473
-0.5560263497 -0.1321033548 1.5837509076
-0.4724798411 -0.4693137732 1.8470756661
-0.5718632954 -0.0614978022 1.5307054062
-0.5499593212 -0.1619200660 1.6290772005
-0.5504704203 -0.1364340867 1.6022393748
-0.5504704203 -0.1364340867 1.6022393748
-0.6368830992 0.1995978689 1.3589011835
-0.5967838775 0.0506900362 1.4677293909
-0.5650289287 -0.0751575027 1.5679538306
-0.5667513169 -0.0649585553 1.5622417496
-0.6010842444 0.0781880678 1.4531323836
-0.6010842444 0.0781880678 1.4531323836
-0.6312548796 0.1923996482 1.3737377306
-0.6494156419 0.2632873792 1.3301549916
-0.6209444640 0.1696910440 1.3964609151
-0.5511349746 -0.0983698157 1.5895371214
-0.6036881639 0.0876966396 1.4737171499
-0.4560991213 -0.4760702553 1.9046014028
-0.6542759747 0.3104735337 1.3160750094
-0.4461748537 -0.4867620497 1.9098199953
-0.6057729439 0.1464545240 1.4501014893
-0.5719673426 0.0227490334 1.5337695109
-0.5684750286 0.0132834258 1.5461632088
-0.6050372186 0.1562383808 1.4426248228
-0.4623775280 -0.4272684077 1.8999492581
-0.6247655684 0.2486335512 1.3844466303
-0.5567619730 -0.0072111730 1.5694447256
-0.6060075193 0.1790489667 1.4448145634
-0.5532024714 -0.0169675241 1.5975458234
-0.5532024714 -0.0169675241 1.5975458234
-0.5255080457 -0.1166490927 1.6966212986
-0.5942106360 0.1835122662 1.4662080709
-0.4042983232 -0.5718232321 2.0434257368
-0.5621516054 0.0604877995 1.5742483098
-0.5066996544 -0.1413192195 1.7423582549
-0.3921659053 -0.5659581848 2.0418122808
-0.6142649771 0.2967813759 1.4160296909
-0.6075435057 0.2826266278 1.4238260366
-0.3776744758 -0.5976503384 2.0478925830
-0.5717249961 0.1423008211 1.5404269564
-0.5424088167 0.0231333200 1.6291352159
-0.5129644211 -0.0740204426 1.7244639969
-0.5998087855 0.2957290190 1.4455024172
-0.3462391251 -0.6368301534 2.0466815198
-0.3861451943 -0.5280762178 2.0304955967
-0.5842806162 0.2159765747 1.5261503883
-0.4027302800 -0.4763433057 2.0184174136
-0.4716921533 -0.2251169411 1.8594775149
-0.4199020618 -0.4018017558 2.0032331245
-0.3921574095 -0.4700259575 2.0093035158
-0.3345860440 -0.6245976042 2.0331690369
-0.5415839158 0.0791801354 1.6591642593
-0.5276523534 0.0437103797 1.6994097577
-0.3593321686 -0.5380896439 2.0300566922
-0.5363781361 0.1063109051 1.6401959555
-0.4299167333 -0.3220333878 1.9954153484
-0.3626146053 -0.4955782203 2.0162732904
-0.3720867827 -0.4629231647 1.9950015180
-0.3049171195 -0.6442739908 2.0409858631
-0.5824208630 0.3238220783 1.5015653361
-0.5824208630 0.3238220783 1.5015653361
-0.5732985839 0.3392314119 1.5104776925
-0.3014425657 -0.6021890423 2.0230648600
-0.4003432497 -0.3316108666 1.9917360822
-0.4151820742 -0.2885297168 1.9867343382
-0.4151820742 -0.2885297168 1.9867343382
-0.5872711797 0.4096662525 1.4818326705
-0.5509837808 0.2748895212 1.5991808909
-0.3841678294 -0.3253230445 1.9847176756
-0.3884699975 -0.3097781287 1.9861736050
-0.5436367191 0.2439622579 1.6753705296
-0.3255960225 -0.4664072905 1.9983888767
-0.3258698208 -0.4668046617 1.9980987572
-0.4843527122 0.0714059736 1.8195527115
-0.4777131935 0.0443635186 1.8447605119
-0.3503513364 -0.3586162336 1.9816860156
-0.4452077912 -0.0791846413 1.9326787673
-0.5556973739 0.3961728949 1.5605598380
-0.3925438460 -0.2171233305 1.9666817458
-0.3369358852 -0.3575634592 1.9715973960
-0.3792440685 -0.2267254229 1.9630771642
-0.3548203745 -0.2940618277 1.9685194263
-0.2471784074 -0.6034985966 2.0067329475
-0.4481097159 0.0006658222 1.9027758217
-0.3606289980 -0.2555066730 1.9595455678
-0.3129789604 -0.3919597161 1.9800770998
-0.2969855431 -0.4379582346 1.9915594293
-0.3075835078 -0.4020075220 1.9820524790
-0.3226921773 -0.3613679280 1.9889689047
-0.2425357898 -0.5863756397 2.0031077944
-0.2360377256 -0.6062359866 2.0089760288
-0.5371982004 0.4020450656 1.6345716252
-0.4156675310 -0.0667802556 1.9487566721
-0.3249995763 -0.3205595510 1.9638400922
-0.4438456320 0.0572570976 1.9110448056
-0.2245947789 -0.6006007538 2.0071806074
-0.2750048775 -0.4359295098 1.9734100664
-0.3619680372 -0.1168028525 1.9342012181
-0.3491153655 -0.1302752917 1.9361923973
-0.3832195152 -0.0066121196 1.9238620959
-0.2708578244 -0.3471767089 1.9639508518
-0.3319844271 -0.1380007565 1.9258395558
-0.3925478712 0.0593040539 1.9036825165
-0.2984486448 -0.2334949575 1.9509702299
-0.2032589468 -0.5162665823 1.9774123105
-0.3679118738 0.0072755260 1.9133316250
-0.3158337283 -0.1528898110 1.9256425617
-0.4513899096 0.2858488398 1.8755914369
-0.2142865275 -0.4608542895 1.9734609936
-0.3572857842 0.0087337206 1.9086309089
-0.1649857006 -0.6122141178 1.9909805447
-0.1649857006 -0.6122141178 1.9909805447
-0.2984182209 -0.1711443155 1.9293639358
-0.3554570901 0.0223907549 1.9069074003
-0.2516922130 -0.3116932391 1.9593403423
-0.2850618906 -0.1757033749 1.9272219963
-0.4681036650 0.4362381956 1.8442927219
-0.1474863534 -0.6146323559 1.9852194324
-0.1671816385 -0.5261928901 1.9707303345
-0.1981236957 -0.4182332152 1.9621867076
-0.1981236957 -0.4182332152 1.9621867076
-0.1838545378 -0.4492036359 1.9590586159
-0.1954374982 -0.3975392340 1.9547032241
-0.2000321132 -0.3764011391 1.9625269512
-0.5130419060 0.7346453106 1.6750932454
-0.3736397857 0.2579978861 1.8536554392
-0.2895110536 -0.0310207035 1.9034687019
-0.2895110536 -0.0310207035 1.9034687019
-0.4198202795 0.4308857861 1.8413683419
-0.3868828542 0.3189722825 1.8539044578
-0.1346028570 -0.5507562071 1.9759521370
-0.3565342528 0.2439186637 1.8566264757
-0.3458720651 0.2276850448 1.8586616864
-0.4296905992 0.5322409684 1.8242649315
-0.3894003890 0.3934217461 1.8405844784
-0.3278766012 0.1807193000 1.8549333740
-0.2578032321 -0.0194224144 1.7461286016
-0.2198845879 -0.1659806306 1.9116080285
-0.2001035145 -0.2173070766 1.9186853584
-0.2252725334 -0.1282848990 1.9089863202
-0.1143551337 -0.5258387759 1.9738940692
-0.1788085702 -0.2623112403 1.9234789899
-0.1406621259 -0.4015169167 1.9477247203
-0.3039670888 0.2209727773 1.8355548934
-0.2955261667 0.2051941657 1.8384891769
-0.2029695803 -0.1304299925 1.8966883284
-0.3664358344 0.4668966242 1.8110920327
-0.1588460384 -0.2909308994 1.9199252269
-0.1158367024 -0.4506614446 1.9624053850
-0.2067847909 -0.1014205215 1.8947023469
-0.0712699169 -0.5936356914 1.9680634416
-0.2143136671 -0.0576503324 1.8884578188
-0.3005832052 0.2712662033 1.8344718662
-0.1090237765 -0.4180345037 1.9486669188
-0.1592417223 -0.2195338416 1.9063138833
-0.1097474687 -0.4035933807 1.9346521516
-0.3015209575 0.3471419398 1.8264098924
-0.4102630986 0.7771243105 1.7481671612
-0.0912630806 -0.4472037793 1.9498306273
-0.1495338267 -0.2161421855 1.9135391421
-0.3122103142 0.4123050869 1.8140636394
-0.1836168478 -0.0694106040 1.8817062214
-0.3583753338 0.6085121476 1.7811667171
-0.3767113034 0.6925095741 1.7640806951
-0.3979888078 0.7922166228 1.7557216155
-0.1133482575 -0.3167482614 1.9244809432
-0.0759154497 -0.4598318208 1.9541387544
-0.0415723606 -0.5812702688 1.9627252634
-0.0897652099 -0.3805085787 1.9371874785
-0.0281978223 -0.6200727480 1.9715003750
-0.0807452244 -0.4009764328 1.9332721313
-0.0807452244 -0.4009764328 1.9332721313
-0.2543897081 0.2972297149 1.8102413806
-0.2686658836 0.3608475961 1.8112925012
-0.0868940585 -0.3649708895 1.9346869337
-0.0261536736 -0.5969781932 1.9636667814
-0.2756620419 0.4066560876 1.8130693050
-0.3694058355 0.7982604310 1.7346341183
-0.0502107939 -0.4819418838 1.9491262739
-0.2335478901 0.2699864450 1.8220125350
-0.2995763137 0.5450637131 1.7814086468
-0.3572771577 0.7839304760 1.7628501463
-0.0219754759 -0.5765018814 1.9621700173
-0.0473907628 -0.4707909657 1.9504405049
-0.3631904633 0.8231455908 1.7290018066
-0.2169106860 0.2348654811 1.8290917121
-0.0455262181 -0.4549005985 1.9367849904
-0.0327471013 -0.5015969923 1.9471597460
-0.3228203690 0.7001247222 1.7416276014
-0.0056818110 -0.6102670765 1.9519142869
-0.3469700428 0.7973681757 1.7395669268
-0.2751437684 0.5346245104 1.7803731821
-0.0480339386 -0.4014991506 1.9282928279
-0.2932156104 0.6294423548 1.7717735015
-0.3279040121 0.7926342480 1.7528330770
-0.1459384811 0.0240254373 1.7239925577
-0.2966334400 0.6637772034 1.7391233168
-0.2966334400 0.6637772034 1.7391233168
0.0023511397 -0.5933374379 1.9494452558
-0.0372173864 -0.4194381319 1.9257495557
-0.2630554747 0.5877770356 1.7656705503
-0.1030433403 -0.1058381977 1.8803894720
0.0137360038 -0.5956401823 1.9520900912
-0.0168575709 -0.4644095416 1.9351084610
-0.1822204920 0.2622740805 1.8099552726
-0.2753138855 0.7044455339 1.7322598403
-0.2133746407 0.4325797342 1.7923264870
-0.0025687128 -0.4835119584 1.9375333472
-0.1575185382 0.1932988419 1.8154790235
-0.0421777203 -0.3098442239 1.9068079421
-0.0090911614 -0.4093258494 1.9112574847
-0.0629274663 -0.1664135010 1.8811001761
-0.0137346248 -0.3424392164 1.9025008612
-0.0031397730 -0.3935264237 1.8979355039
-0.0934210122 0.0035906102 1.8290482051
0.0297557118 -0.5307825155 1.9367916252
-0.0160322157 -0.3173117568 1.9042147209
-0.0340836161 -0.2342364323 1.8902678146
-0.2376996583 0.7088328293 1.6870180502
-0.2056929099 0.5705051943 1.7299060247
-0.0130017980 -0.2989249467 1.9124578242
-0.1838229696 0.4931253852 1.7524519252
0.0264213659 -0.3316977126 2.5721155425
-0.1665106136 0.4292201801 1.7783670613
-0.2275291891 0.7189098789 1.7031551142
0.0579967568 -0.6007869823 1.9209743489
-0.2321645968 0.7471931918 1.7085546272
-0.1328634692 0.3188741807 1.8051374404
-0.1328634692 0.3188741807 1.8051374404
-0.1208333825 0.2908127050 1.8030028594
-0.1685047725 0.5287127016 1.7453626619
-0.1331113157 0.3861448138 1.7920940351
-0.1254850456 0.3633932074 1.7937175466
-0.0217596901 -0.1290860266 1.8784125205
0.0508501705 -0.4704022942 1.9113859380
0.0090233418 -0.2693473403 1.9019422764
-0.1638998478 0.5791161062 1.7410200774
0.0351474161 -0.3866106699 1.8977342761
-0.0590429044 0.0471258880 1.7097634664
-0.1378457837 0.4460915905 1.7443385188
0.0306175674 -0.3492386507 1.8908509032
-0.1480028316 0.5311316890 1.7427249994
-0.1488556655 0.5354102849 1.7475699819
0.0280404273 -0.3277653815 1.8897242165
-0.1170521436 0.4115153077 1.7759109574
-0.1419003011 0.5447313604 1.7412163187
-0.0778780045 0.2462559650 1.8044414094
-0.1722618017 0.7238612281 1.7082623028
-0.0396696251 0.0556986943 1.7033213109
-0.1611485791 0.6975427265 1.7132472232
-0.0344706237 0.0446176494 1.7160915297
-0.0821279794 0.4112526780 1.7978050847
-0.0941002414 0.4802828035 1.7404692461
-0.0181081097 0.0432276318 1.7116845418
-0.1422201153 0.7505149353 1.6949442717
0.0370379805 -0.1445246275 1.8555894490
-0.0078813633 0.0514230335 1.7267838180
0.0021538701 0.0358874850 1.7561418646
-0.0845686858 0.5522044276 1.7327233375
-0.0112735456 0.1247468399 1.6977959132
-0.1087975696 0.7160500990 1.6907292429
-0.0590479041 0.4729746987 1.7431623004
-0.0590345492 0.4753855243 1.7463147430
0.1207468732 -0.3954086686 2.0884305056
-0.1013446708 0.7380187205 1.6901377644
-0.0650000418 0.5650712617 1.7226342305
-0.0871886523 0.6981082916 1.7022737313
0.0594857713 -0.0724808119 1.7851332868
-0.0600911232 0.7078414516 1.6920631601
0.1728075759 -0.4768947456 2.1595572161
-0.0652499837 0.7457277691 1.6735563099
-0.0106987195 0.4621063400 1.7647226200
-0.0106987195 0.4621063400 1.7647226200
0.1757282849 -0.4572421378 2.1508673288
0.0836221244 -0.0858576647 1.7893253101
0.1880133827 -0.4724241888 2.1657793479
0.1273745091 -0.2084268929 1.9782623723
0.1091523345 -0.1525012925 1.8972230637
-0.0051191366 0.5753513886 1.7332728949
0.1233204407 -0.1486534791 1.9301077858
0.0123375570 0.5470036630 1.7494458558
-0.0269508954 0.7520252704 1.6549389476
0.1112117106 0.0698057565 1.8014618731
0.0746295279 0.4773836613 1.8584203371
0.1693534070 -0.1423221580 1.9052358404
0.0245542195 0.8705095982 1.7569085754
0.1540468188 -0.0574407019 1.8504449103
0.0562678436 0.7673327685 1.8129333286
0.1628747709 -0.0320094816 1.8368226959
0.0748865084 0.8269214934 1.8035749283
0.0880840853 0.7041129962 1.8099905508
0.1535410260 0.1560656002 1.8234743439
0.1535410260 0.1560656002 1.8234743439
0.0910282200 0.7438333447 1.7979711167
0.1573183313 0.4582984004 2.0083769316
0.2081212586 -0.0950862972 1.8890261613
0.2146624830 -0.1258890984 1.9029718819
0.2173387304 -0.1380394227 1.9100832865
0.0939235908 0.9230457029 1.8060533249
0.1150891466 0.7294206344 1.8072489127
0.2272477571 -0.1373132906 1.8922506200
0.2004376996 0.0095478774 1.8144133922
0.1996349710 0.0245527819 1.8041383849
0.2384382905 -0.1249056944 1.8769980466
0.2457055805 -0.1354967608 1.8900483145
0.2401807546 -0.0959637049 1.8691836298
0.2213490716 0.0011287079 1.8116811389
0.2202952248 0.0010438682 1.8119087634
0.2513061122 -0.1291847802 1.8747658685
0.2798209370 -0.1172134358 1.8482530314
0.2942038550 -0.1273164715 1.8618477058
0.2942038550 -0.1273164715 1.8618477058
0.3365506145 -0.1083515688 1.8170678961
0.2428952196 0.0909920567 1.2774580002
0.3814048042 -0.0398907244 1.7097548727
0.3804590249 -0.0415679955 1.7066191437
0.3975236960 -0.0571134467 1.7010143512
0.4047449414 -0.0549473573 1.7008386917
-0.6223433109 0.5582246801 1.4644754812
-0.6198211186 0.5408795848 1.4697956956
-0.6198211186 0.5408795848 1.4697956956
-0.6223758054 0.5370915763 1.4634116860
-0.6116489097 0.5440181605 1.4841755775
-0.6019167908 0.5479682837 1.5298401846
-0.5965356187 0.5513305319 1.5370035410
-0.5965356187 0.5513305319 1.5370035410
-0.6247171496 0.5250230177 1.4533805681
-0.6211417247 0.5056274962 1.4585440695
-0.6332989211 0.4885349661 1.4124273392
-0.6357509445 0.4860730609 1.4260453036
-0.6157945431 0.4985364354 1.4574976531
-0.6570770212 0.4287859240 1.3835857155
-0.5871103785 0.4674124924 1.5581150593
-0.5824827602 0.4454202139 1.5472001309
-0.5584126491 0.4600247278 1.6325725292
-0.6090421929 0.4137440282 1.5085812486
-0.5787988256 0.4319072842 1.5690740793
-0.6281465956 0.3725364004 1.4172900114
-0.6281465956 0.3725364004 1.4172900114
-0.5635738809 0.4134257182 1.6281287522
-0.0003081757 0.9255731893 1.7301492137
-0.6016207985 0.3695977552 1.4788208692
-0.6383836703 0.3256742001 1.3953408205
-0.5870156123 0.3657560779 1.5522235474
-0.5984201073 0.3549612240 1.5063169205
0.0004010201 0.9153197736 1.7261101112
-0.6583675012 0.2896956734 1.3582176434
-0.5997468514 0.3395375369 1.5015304265
-0.5740024359 0.3552831870 1.5680517317
0.0352167285 0.9358518833 1.8346339497
-0.5962789498 0.3315983125 1.5079895244
0.0062339169 0.9047265652 1.7409650327
0.0271264950 0.9221732830 1.7900421675
-0.5498373773 0.3583746062 1.6464407554
-0.6006523185 0.3105352981 1.4898085009
0.0222406401 0.9144656388 1.7795535135
0.0168984509 0.9080538079 1.7651337499
-0.6217198709 0.2861995726 1.4317764619
-0.6217198709 0.2861995726 1.4317764619
-0.5936816462 0.3045201913 1.4992894067
-0.6197166296 0.2676384992 1.4431271361
-0.5701360450 0.3066116495 1.5799621333
-0.5932500753 0.2824732462 1.5063459520
-0.5932500753 0.2824732462 1.5063459520
-0.0082210210 0.8712560005 1.7061130598
-0.6422544743 0.2281283062 1.3863380990
-0.0004522062 0.8728987031 1.7212100264
-0.6198815908 0.2401218620 1.4414960111
-0.6651433886 0.1969354505 1.3049584506
-0.5677875176 0.2781737718 1.5862451907
-0.5894991290 0.2331643007 1.5236812269
-0.6609968373 0.1680120267 1.3233576848
-0.6560901522 0.1599109488 1.3257190821
-0.6560901522 0.1599109488 1.3257190821
-0.6545271805 0.1548579986 1.3485689132
0.0429679146 0.8758349792 1.8249947005
-0.5652806958 0.2062894324 1.6049445287
0.0168719321 0.8440255310 1.7683850421
-0.5853056303 0.1868047803 1.5170014424
-0.5354054784 0.2297187796 1.6550471321
0.0126984304 0.8371444046 1.7584475133
0.0126984304 0.8371444046 1.7584475133
-0.5629698093 0.1986180345 1.5985693190
-0.5862552312 0.1703838065 1.5086350094
-0.6532572217 0.1085976638 1.3311327705
-0.0647168235 0.7419975814 1.7214736421
-0.5567799142 0.1881837148 1.5875636150
-0.5842044580 0.1610220175 1.5339715643
-0.4998656867 0.2270828237 1.7817435378
-0.6075357565 0.1332244214 1.4380892036
0.0252267832 0.8341993485 1.7794206554
-0.5580607797 0.1651589839 1.5950744131
-0.0410245321 0.7542494978 1.7322152580
-0.5980003304 0.1268504211 1.4420397755
-0.6437353097 0.0731929825 1.3276602049
0.0475281321 0.8403648423 1.8403201886
0.0481334764 0.8409215962 1.8398024138
0.0308648201 0.8232566020 1.7966066046
0.0363695879 0.8284004337 1.8069512264
-0.5960847500 0.1091823821 1.4320316665
-0.0477944453 0.7331253131 1.7326354254
-0.5817179478 0.1136394789 1.5392302719
-0.0534589581 0.7218756549 1.7333633091
-0.5975801160 0.0962271405 1.4527276761
0.0066684260 0.7893032968 1.7594862145
-0.6019829416 0.0785460846 1.4620614729
-0.5823898730 0.0916156292 1.5236375519
-0.5273657788 0.1333424813 1.6802178154
0.0901280504 0.8591190290 1.9039212440
0.0510781789 0.8166581188 1.8477977719
0.0832354878 0.8473233196 1.9006303678
0.0184937647 0.7759509961 1.8034512904
-0.6215160293 0.0212020248 1.4079038587
0.0530748907 0.8088630580 1.8505227533
-0.6531140163 -0.0135274717 1.3079755522
0.0500381820 0.8041124190 1.8427833360
-0.6314586077 -0.0030995195 1.3644893312
-0.6314586077 -0.0030995195 1.3644893312
0.0242861030 0.7723537089 1.7745461674
-0.5375514171 0.0540327447 1.6523628686
0.0331711897 0.7660010376 1.8316124188
0.0749631740 0.8136636018 1.8661290109
0.0296754656 0.7613623251 1.7950753785
-0.5942765408 -0.0222147545 1.4802405434
-0.5942765408 -0.0222147545 1.4802405434
-0.5703124842 -0.0048144122 1.5459138637
0.0431564125 0.7645821479 1.8397823675
0.1037064982 0.8408292697 1.8542844547
-0.5390204340 0.0144226053 1.6257243962
0.0497226631 0.7690471002 1.8475519992
0.0807561635 0.8088186817 1.8504013159
-0.5708103687 -0.0242788819 1.5409628891
0.0509666755 0.7684894997 1.8289449950
-0.6658212872 -0.1150417563 1.2740415778
0.1209188110 0.8554832814 1.8569355868
0.0410771765 0.7507651537 1.8106819060
-0.5906421752 -0.0566425447 1.4791121097
0.0416829784 0.7491583146 1.8222443726
0.1207096588 0.8395040251 1.8837082985
-0.5381545609 -0.0250507380 1.5800014177
-0.5570883403 -0.0496932147 1.5655601358
-0.6594241819 -0.1451890622 1.2834201998
-0.5103197373 -0.0123996706 1.6925458799
0.0912979909 0.8035303611 1.8440746791
-0.5839001299 -0.0937009438 1.4921313385
0.0509844816 0.7345544841 1.8548379371
-0.5383276397 -0.0270763062 1.4574895120
-0.5606880153 -0.0798878523 1.5563334118
-0.5328798386 -0.0601070103 1.6331135351
-0.5071337928 -0.0425724779 1.7042854913
0.0523967375 0.7318879451 1.8345754679
-0.5060432026 -0.0464313793 1.7211008003
-0.6014350784 -0.1307889339 1.4354669137
0.0221922519 0.6860473453 1.7635537542
-0.5290724728 -0.0974597385 1.6421423361
0.0116652649 0.6720900218 1.7482174409
-0.5053198532 -0.0811575509 1.7087689956
-0.5209555077 -0.0955383590 1.6665827154
0.0299686438 0.6873671064 1.7695455595
-0.6222257002 -0.2178185339 1.3526758514
-0.6222257002 -0.2178185339 1.3526758514
-0.6423702248 -0.2592717949 1.2656026340
-0.5226747096 -0.1681601618 1.6551933506
0.0492886826 0.6778341810 1.8048275907
-0.5660300376 -0.2086963988 1.4980160763
-0.6509238266 -0.3055082810 1.2649763344
-0.5467088189 -0.2260431101 1.5893375668
-0.5156463610 -0.1972635743 1.6532747010
0.0565634237 0.6606687947 1.8251274369
-0.5388131345 -0.2297692607 1.5774290685
-0.5612480262 -0.2713034567 1.5222557278
-0.5612480262 -0.2713034567 1.5222557278
-0.6314383271 -0.3582729328 1.2589395221
-0.6228237429 -0.3722936884 1.3477608717
0.0422168980 0.6107291146 1.7974942685
0.0826810830 0.6617081593 1.8371528425
0.0383800175 0.5979042758 1.7841051473
0.0872145383 0.6563793263 1.8705430850
0.0566616955 0.6148773547 1.8140471408
0.0360111464 0.5856209536 1.7782480408
-0.6322852395 -0.4251663349 1.2779718859
-0.5516931716 -0.3678196806 1.5479972929
-0.5322389473 -0.3591314990 1.6223275615
0.1854566454 0.7807541235 1.9218639412
-0.6073984058 -0.4627448079 1.3686439668
-0.5432943538 -0.4102897399 1.5407951068
0.0881064147 0.6314723180 1.8204619736
-0.4997074940 -0.3824464582 1.6821892616
0.0815487910 0.6109498735 1.8311247939
-0.5709795466 -0.4519299490 1.4690079923
-0.4971624766 -0.4007057091 1.6744045482
0.0839099811 0.5690309596 1.8186544881
-0.5414435681 -0.5719057960 1.5711478783
-0.5848262625 -0.6122581463 1.4409230300
-0.5062971887 -0.5306003141 1.6329117689
-0.5062971887 -0.5306003141 1.6329117689
-0.5421430458 -0.6215933681 1.5170782924
-0.5440327946 -0.6217700901 1.4915178915
-0.5420396189 -0.6624175350 1.5699004396
-0.5420396189 -0.6624175350 1.5699004396
-0.5579949994 -0.6964007380 1.4760583052
0.0831224062 0.4560283711 1.9057731673
-0.5048984938 -0.6771858380 1.6732660800
0.2250840061 0.7101013061 2.0140766000
-0.5419285604 -0.7057158035 1.5314445752
-0.5521809196 -0.7033261286 1.4660653823
0.0351555621 0.3908091332 1.7968144869
0.0881579598 0.4495888489 1.9056111129
0.0500372187 0.3960957395 1.8253527618
-0.5236216230 -0.8145474710 1.6238131829
-0.5193273407 -0.7932199559 1.5495458443
0.0487991603 0.3032891720 1.8676572455
0.0448008398 0.2943372733 1.8574129751
-0.4980511459 -0.8428778896 1.6399884047
0.0945489926 0.3520515382 1.9478679728
-0.0821363253 0.0681870482 1.6980655145
-0.5627196514 -0.9175849763 1.4074999545
0.1199653906 0.3740025869 1.9906465485
0.1244747922 0.3845120914 1.9928831779
0.1244747922 0.3845120914 1.9928831779
0.0566372182 0.2762340004 1.8655605577
0.0614122548 0.3059866095 1.8167576918
0.1116959186 0.3415978859 1.9590250203
0.1207006626 0.3497711280 1.9770582828
0.0997020148 0.3084340791 1.9438465510
0.0645284869 0.2714246515 1.8270704170
0.0421304908 0.2230422147 1.7837100608
0.0421304908 0.2230422147 1.7837100608
0.1531872003 0.3430439518 2.0306959203
0.0523474031 0.2219830499 1.7853062876
-0.4297799568 -1.0112818252 1.7710852718
0.0578955019 0.2179907016 1.7987541824
0.0771751679 0.2075168157 1.8864055146
0.0701810931 0.2064408352 1.8356728692
-0.5735788131 -1.2474619131 1.3428484365
0.1200974200 0.2264975032 1.9700566313
0.1451080289 0.2513516475 2.0000842239
0.1040202102 0.1997036053 1.8827150687
0.1673463013 0.2546285066 2.0427375230
0.1156376451 0.2312510379 1.8384028816
0.1686156658 0.2467323776 1.9825569084
0.0682543769 0.1139829013 1.7411598857
0.1997233603 0.3008436988 2.0235010230
0.1183557915 0.1998580246 1.8204168425
0.1538666235 0.1463019477 2.0089224231
0.0896861980 0.1074349963 1.7750172145
0.1570928438 0.1829431153 1.9501109856
0.1553365447 0.1820983491 1.8818545556
0.1573830081 0.1992235858 1.8327212772
0.1786474019 0.1457727484 1.9166535609
0.2216364389 0.1756262828 1.8219856501
0.2309072599 0.1755643040 1.8474271308
0.2324067072 0.1608626899 1.8061535487
0.3086287735 -0.0211951396 2.2331884403
0.2709283591 -0.2276754729 2.1662990181
0.2653914087 0.1615261072 1.8377652207
0.3253636524 -0.0472951779 2.2012134267
0.2838689140 0.1298921400 1.8649741746
0.2840004355 0.1574067473 1.8109594647
0.2752242508 0.1473632814 1.7842802421
0.2891749991 0.1525146914 1.8159937378
-0.2110326614 -2.5912379345 1.7803960864
0.2876440056 0.1460303443 1.7830862680
0.3048605088 0.1377898672 1.7834621597
0.3485208865 0.0668349276 1.7577674484
0.3481491353 0.0464977653 1.7530813050
-0.4642236038 -6.0181508230 1.2799200002
0.4445721212 -0.7725104883 2.3383555116
0.4445721212 -0.7725104883 2.3383555116
-0.1938215221 -5.9239108899 2.0660867884
0.4494341349 -0.8109282641 2.2993819547
0.3779655231 0.0417588891 1.7561506865
0.3802628534 0.0198334515 1.7214010204
-0.3205183237 -9.9675134598 0.7599030287
-0.2126611387 -11.8400883767 1.0530028773
0.6988214876 -0.3417101926 2.5548872831
-0.0300974128 -13.1267755164 1.4310465090
0.3621321628 -13.6416357303 2.5821954846
0.3313964666 -11.4401476746 2.2192679999
0.0547214931 -11.0306273082 1.3149261917
0.0547214931 -11.0306273082 1.3149261917
0.0993044549 -12.7566770623 1.5193871460
-0.0111527719 -12.6154167757 1.0985329539
0.1898319836 -11.8776934623 1.6138945592
0.7057043663 -11.3463787756 3.1293535417
-0.3260102817 -12.8557675161 0.0221786502
-0.2345985245 -12.4078407341 0.2742829818
0.0275207168 -11.7224188707 0.8762408390
-0.3761590811 -13.8129928053 -0.3294791012
-0.1597055394 -14.3903232143 0.2937549921
-0.1727469598 -12.6364008279 0.1285114491
-0.2676322316 -14.3896856117 -0.1710341707
0.7685244154 -10.9363856776 2.8438994149
-0.2835507683 -14.0790287994 -0.3211360423
0.2254264855 -11.7775824378 0.8370354617
0.3528461878 -11.1892052008 1.1773595447
0.1320329902 -10.9895360525 0.5109331051
0.2214453792 -10.7544989942 0.6473374828
-0.1409392863 -12.0913980576 -0.4509508022
0.1297218162 -12.2958497033 0.2859339197
0.9220466975 -9.9897625556 2.6465354916
0.9450317884 -10.6220079242 2.6210212820
1.3954311223 -3.7478075182 4.1635129798
0.3382632285 -9.8787703631 0.6672661461
0.3382632285 -9.8787703631 0.6672661461
0.3704548610 -10.7161831922 0.5119406291
1.5067838993 -7.5300675901 4.0847623635
-0.0194392091 -11.5186070532 -0.7006945447
1.5195317176 -7.0919441306 4.1039905881
1.4220431680 -11.7052750677 3.2457688871
0.5866450470 -11.9696403884 0.7749337297
0.0708816642 -12.4623985018 -0.7951757959
1.8461010825 -6.2687119342 4.9789948322
1.4389112325 -3.6373545940 3.9771161427
1.8544362805 -6.2168150511 4.8684973465
0.2151672795 -12.3730648868 -0.5812218951
0.1604764691 -12.7626733971 -0.8031774732
0.1604764691 -12.7626733971 -0.8031774732
0.2308455913 -12.9580539038 -0.7836512695
0.7210235081 -11.6588739737 0.7787780727
0.8656551621 -11.3806432867 1.0519134810
1.9853814325 -6.3597741319 4.9108751962
0.9174944686 -11.4969414057 0.9302878030
1.5625197875 -3.7700477491 3.9926376949
2.0123019861 -6.1751326269 4.8618853841
1.7516951674 -9.2317443691 3.5407943174
1.9034985751 -7.3057874877 4.1920037348
1.6164988879 -10.1862652270 2.8103253137
1.9375988173 -10.9871301374 3.4563152927
0.6673355672 -14.0984409178 -1.0033717438
0.6673355672 -14.0984409178 -1.0033717438
1.7258263090 -3.8542594831 4.1107650565
2.0743894025 -10.7353150370 3.5494544950
0.8684878125 -13.1355281263 -0.3637553793
0.6491724430 -12.8227503001 -0.9300360138
1.0916665331 -10.9536066027 0.6947001701
1.3113903285 -11.1170880320 1.1536448270
1.8950199378 -8.6821594714 3.2996546904
1.2774587284 -11.5242660535 0.7232771730
2.2757719090 -6.1732693156 4.7869205495
2.3283469865 -6.2915057514 4.7673901428
2.3805971387 -6.1737863588 4.6832048174
2.2207654039 -7.2709186286 3.9078109228
2.1990637103 -7.4085852846 3.7752022099
0.9549626954 -0.3561540092 2.4626778536
2.3952098390 -6.0020894277 4.6537894588
0.9506603863 -0.3947971763 2.4236912705
1.2893537095 -2.8190796229 2.6001744085
2.3145336595 -7.5443847608 3.8885104942
2.3145336595 -7.5443847608 3.8885104942
1.8823892952 -9.2076209832 2.1678800325
1.3720407524 -14.6773920080 -0.9532996508
1.6900852407 -3.0339887901 3.5906606953
2.4923382418 -5.9898308325 4.8161300258
2.3501906455 -5.4798652792 4.5807722108
-1.0789803936 6.7755978715 -0.7082968447
2.3516137801 -9.4558551188 3.1368261331
2.3008813861 -8.6712336779 3.2811575929
2.3628684058 -8.9922858180 3.3390362424
2.3384550978 -7.4696168590 3.5998175814
2.6576437179 -6.1399346789 4.8420941977
2.6262120749 -6.3016410533 4.6560943093
2.1007196080 -9.3820905677 2.0918347793
2.1007196080 -9.3820905677 2.0918347793
1.2159866305 -1.6639285946 2.5389872027
1.6820926827 -13.0218547941 -0.4198310785
1.8679955020 -12.6188530100 -0.2439251821
1.9146235572 -13.2617876769 -0.8398229052
2.7402244460 -9.1258844578 3.0557417948
1.0641938354 -0.4120863504 2.4166427544
1.0715460211 -0.5090597610 2.3848965472
1.0758477413 -0.4959720948 2.3978289795
2.7072469466 -9.1045292822 2.5996068345
2.1536811244 -12.0806064405 -0.2249790116
2.2433517261 -10.3246120988 0.8076791950
2.6642875042 -9.1913068572 2.3373702568
2.2198877048 -13.9509066939 -1.1260833496
2.2198877048 -13.9509066939 -1.1260833496
2.3392635334 -12.1782503404 -0.0657856361
2.5016602775 -9.9139419620 1.1737868438
2.4905790015 -12.0320102806 -0.0444623476
-0.6753154654 -0.1599283983 1.2206589565
-0.5242889439 -0.6120380537 1.7018252263
-0.5248186652 -0.6073242534 1.6970785534
-0.6524106096 -0.2288304230 1.2987771055
-0.5785324461 -0.4422342512 1.5180270682
-0.5775344440 -0.4371964300 1.5106504318
-0.5097124699 -0.6475524856 1.7420637409
-0.4969717148 -0.6874530315 1.7958219978
-0.5680858448 -0.4618652526 1.5484681582
-0.5902515452 -0.3905515016 1.4729338400
-0.6532175043 -0.2122404254 1.2955078914
-0.5420782710 -0.5395619939 1.6360064285
-0.5365514299 -0.5594356955 1.6630956381
-0.6118863554 -0.3262799711 1.4111442144
-0.4883772770 -0.7168464286 1.8441974998
-0.5457557045 -0.5215431408 1.6150813893
-0.6590403833 -0.1818571661 1.2619824306
-0.6452440706 -0.2277279656 1.3127269036
-0.6624895353 -0.1744497982 1.2561740628
-0.5586296455 -0.4757245620 1.5822950232
-0.6274223016 -0.2671281971 1.3689569384
-0.5447262043 -0.5153054713 1.6330041676
-0.4919038152 -0.6826315227 1.8228999263
-0.6225019856 -0.2770700243 1.3834362761
-0.6422689750 -0.2241514933 1.3351708574
-0.5695972082 -0.4355163585 1.5495555844
-0.4878302308 -0.6939709963 1.8381447658
-0.4878302308 -0.6939709963 1.8381447658
-0.5366306357 -0.5262339741 1.6413396237
-0.5096233028 -0.6130398918 1.7445683890
-0.4838612457 -0.6971799459 1.8466039317
-0.5334294124 -0.5305268690 1.6544010560
-0.4917854716 -0.6653035719 1.8097365915
-0.5651882242 -0.4282574425 1.5454325685
-0.4885814116 -0.6723386376 1.8219741295
-0.4885814116 -0.6723386376 1.8219741295
-0.6058399591 -0.3043169332 1.4256994330
-0.6692548349 -0.1189460065 1.2391261363
-0.5691193147 -0.4153108728 1.5493189504
-0.5691193147 -0.4153108728 1.5493189504
-0.5936379031 -0.3366114642 1.4684903442
-0.6542169822 -0.1626343797 1.2918314455
-0.5956409691 -0.3281512756 1.4624517469
-0.5092636390 -0.5903172306 1.7419222207
-0.6210240724 -0.2532673218 1.3870154083
-0.6332683893 -0.2173279024 1.3531398143
-0.6588864094 -0.1368513046 1.2834449205
-0.6338379680 -0.2041356868 1.3430885383
-0.6335483884 -0.2064007604 1.3552402109
-0.5663751164 -0.3950185678 1.5448015379
-0.6380978725 -0.1891044233 1.3342090176
-0.5652322178 -0.4012941543 1.5525431251
-0.5363046620 -0.4863403033 1.6463920429
-0.6785307698 -0.0676772337 1.2170686825
-0.5460092439 -0.4657224905 1.6375509424
-0.5239170000 -0.5346812507 1.7169399408
-0.4883815681 -0.6380202568 1.8297758717
-0.5413243153 -0.4617903034 1.6268668476
-0.6318704918 -0.1983022758 1.3609904584
-0.5382143941 -0.4701276085 1.6393907802
-0.4915680426 -0.6228640059 1.8129279849
-0.6156495907 -0.2449147425 1.4141918207
-0.5865525597 -0.3109549584 1.4660974350
-0.5869373797 -0.3096969490 1.4662104840
-0.5870407139 -0.3075340449 1.4676216359
-0.5178795774 -0.5257372601 1.7169238787
-0.5128529432 -0.5282287757 1.7108244624
-0.6449515789 -0.1286689863 1.2892226988
-0.4815393367 -0.6367120984 1.8418702736
-0.4929535227 -0.5979029910 1.8062214508
-0.5440231890 -0.4364420307 1.6299430051
-0.5440231890 -0.4364420307 1.6299430051
-0.5529082683 -0.3961349051 1.5786971155
-0.5455737665 -0.4242072297 1.6176446619
-0.5135360403 -0.5235186956 1.7278873960
-0.6641360651 -0.0623803063 1.2462736440
-0.5688728104 -0.3431765413 1.5428490672
-0.6596816482 -0.0785199017 1.2769375803
-0.6482804685 -0.1202172153 1.3294495518
-0.5429055286 -0.4194704276 1.6294354443
-0.6174269532 -0.1945059224 1.3926224873
-0.5370270269 -0.4310370443 1.6373469735
-0.5005628023 -0.5488409212 1.7733299824
-0.6301005815 -0.1538729128 1.3565006629
-0.5761959643 -0.3157851614 1.5284238167
-0.6061345775 -0.2222626870 1.4465592918
-0.5774884997 -0.3045479396 1.5164216478
-0.6717910981 -0.0189800984 1.2248986099
-0.5067408746 -0.5023837803 1.7299092794
-0.5037940127 -0.5063469500 1.7233919063
-0.6627852426 -0.0489580969 1.2724270691
-0.6701333422 -0.0326326357 1.2603587862
-0.5358983450 -0.4080091879 1.6304416679
-0.6437830978 -0.0997192024 1.3227121687
-0.5704114455 -0.3112773952 1.5374527665
-0.5159195963 -0.4766313219 1.7210439165
-0.5477623536 -0.3761375806 1.6154270343
-0.5506445843 -0.3686907709 1.6087657326
-0.6072416252 -0.2008133122 1.4421207320
-0.5103965873 -0.4748070999 1.7170056764
-0.6107421174 -0.1834629564 1.4322065532
-0.4381517775 -0.6905004197 1.9554043933
-0.4389065842 -0.6950396370 1.9707577391
